-0.800781 -5.42969 19.834
-0.800781 -5.35156 19.834
0.332031 -3.39844 21.3574
0.332031 -3.32031 21.3574
0.371094 -3.39844 21.416
0.371094 -3.32031 21.416
0.371094 -3.24219 21.3574
0.410156 -3.39844 21.416
0.410156 -3.32031 21.416
0.449219 -3.39844 21.4746
0.449219 -3.32031 21.4746
0.410156 -3.24219 21.3574
0.449219 -3.24219 21.3574
0.449219 -3.24219 21.416
0.449219 -3.16406 21.3574
-2.01172 3.16406 24.5215
-2.01172 3.24219 24.5215
-1.97266 3.16406 24.5215
-1.97266 3.24219 24.5215
-2.01172 3.32031 24.5801
-1.97266 3.32031 24.5801
-1.93359 3.16406 24.5215
-1.93359 3.24219 24.5215
-1.89453 3.16406 24.5801
-1.89453 3.24219 24.5801
-1.93359 3.32031 24.5801
-1.69922 5.66406 24.873
-1.69922 5.66406 24.9316
-1.69922 5.74219 24.873
-1.69922 5.74219 24.9316
-1.69922 5.66406 24.9902
-1.69922 5.66406 25.0488
-1.69922 5.74219 24.9902
0.175781 2.22656 26.3379
0.214844 2.22656 26.3379
0.175781 2.30469 26.3965
0.214844 2.30469 26.3965
0.214844 2.30469 26.4551
0.175781 2.38281 26.4551
0.253906 2.22656 26.3379
0.292969 2.22656 26.3379
0.253906 2.30469 26.3965
0.253906 2.30469 26.4551
0.292969 2.30469 26.3965
0.292969 2.30469 26.4551
-1.07422 -5.35156 21.5332
-0.996094 -5.50781 21.5332
-0.957031 -5.58594 21.5332
-0.957031 -5.50781 21.5332
-0.957031 -5.42969 21.5332
-1.23047 -4.96094 22.2949
-1.23047 -4.96094 22.3535
-1.19141 -4.96094 22.3535
-1.23047 -4.96094 22.4121
-1.23047 -4.88281 22.4707
-1.19141 -4.96094 22.4121
-1.19141 -4.88281 22.4707
-1.23047 -4.80469 22.4707
-1.15234 -4.96094 22.2949
-1.15234 -4.96094 22.3535
-1.11328 -4.96094 22.2949
-1.11328 -4.96094 22.3535
-1.15234 -4.96094 22.4121
-1.15234 -4.96094 22.4707
-1.15234 -4.88281 22.4707
-1.11328 -4.96094 22.4121
-1.11328 -4.96094 22.4707
-3.37891 -2.38281 20.1855
-3.41797 -2.22656 20.1855
-3.37891 -2.30469 20.1855
-3.37891 -2.22656 20.2441
-3.33984 -2.46094 20.1855
-3.33984 -2.46094 20.2441
-3.33984 -2.38281 20.2441
-3.30078 -2.46094 20.3027
-3.30078 -2.38281 20.3027
-3.33984 -2.30469 20.2441
-3.33984 -2.30469 20.3027
-3.33984 -2.22656 20.3027
-3.33984 -2.22656 20.3613
-3.30078 -2.30469 20.3613
-1.54297 3.39844 23.2324
-1.50391 3.39844 23.2324
-1.46484 3.39844 23.2324
-1.85547 3.16406 24.6387
-1.81641 3.16406 24.6387
-1.81641 3.24219 24.6387
-1.85547 3.32031 24.6387
-1.85547 3.39844 24.6387
-1.81641 3.32031 24.6387
-1.81641 3.39844 24.6973
-1.77734 3.16406 24.6387
-1.77734 3.24219 24.6387
-1.73828 3.16406 24.6387
-1.73828 3.24219 24.6387
-1.77734 3.32031 24.6387
-1.77734 3.39844 24.6973
-1.73828 3.32031 24.6387
-1.73828 3.39844 24.6973
-3.26172 -2.38281 19.541
-3.22266 -2.38281 19.541
-3.26172 -2.46094 19.5996
-3.22266 -2.46094 19.5996
-3.26172 -2.30469 19.541
-3.26172 -2.22656 19.4824
-3.22266 -2.30469 19.4824
-3.22266 -2.22656 19.4824
-3.18359 -2.38281 19.541
-3.14453 -2.38281 19.541
-3.18359 -2.46094 19.5996
-3.14453 -2.46094 19.5996
-3.18359 -2.30469 19.4824
-3.18359 -2.22656 19.4824
-3.14453 -2.30469 19.541
-3.14453 -2.22656 19.4824
1.11328 3.00781 26.5137
1.11328 3.08594 26.5137
1.11328 3.08594 26.5723
1.11328 3.08594 26.6309
-1.69922 3.16406 24.6387
-1.69922 3.24219 24.6387
-1.66016 3.16406 24.6387
-1.66016 3.24219 24.6387
-1.69922 3.32031 24.6973
-1.69922 3.39844 24.6973
-1.66016 3.32031 24.6973
-1.66016 3.39844 24.6973
-1.62109 3.16406 24.6387
-1.62109 3.24219 24.6387
-1.58203 3.16406 24.6387
-1.58203 3.24219 24.6387
-1.62109 3.32031 24.6973
-1.62109 3.39844 24.6973
-1.58203 3.32031 24.6973
-1.58203 3.39844 24.6973
0.800781 1.36719 23.9355
0.839844 1.36719 23.9355
0.800781 1.44531 23.9941
0.800781 1.52344 23.9941
0.839844 1.44531 23.9941
0.800781 1.52344 24.0527
0.839844 1.52344 24.0527
0.878906 1.28906 23.9355
0.878906 1.36719 23.9355
0.917969 1.28906 23.9941
0.917969 1.36719 23.9941
0.917969 1.36719 24.0527
0.878906 1.44531 23.9941
0.878906 1.44531 24.0527
0.878906 1.52344 24.1113
0.917969 1.44531 24.1113
0.917969 1.52344 24.1113
0.488281 3.08594 27.2168
0.527344 3.08594 27.2168
0.566406 3.08594 27.2168
0.605469 3.08594 27.2168
0.605469 3.08594 27.2754
-0.605469 0.976563 24.4043
-0.605469 0.976563 24.4629
-0.566406 0.976563 24.4629
-0.566406 1.05469 24.4043
-0.605469 0.976563 24.5801
-0.566406 0.976563 24.5215
-0.566406 1.05469 24.5215
-0.566406 1.05469 24.5801
-0.527344 1.05469 24.4043
-0.527344 1.05469 24.4629
-0.527344 1.13281 24.4629
-0.488281 1.13281 24.4043
-0.488281 1.21094 24.4043
-0.488281 1.21094 24.4629
-0.527344 1.13281 24.5215
-0.527344 1.13281 24.5801
-0.527344 1.21094 24.5801
-0.488281 1.21094 24.5215
-0.605469 1.60156 23.9355
-0.605469 1.67969 23.9941
-0.566406 1.67969 23.9355
-0.605469 1.75781 23.9355
-0.605469 1.83594 23.9941
-0.566406 1.83594 23.9355
-1.69922 2.85156 24.5801
-1.69922 2.92969 24.5801
-1.66016 2.85156 24.5801
-1.66016 2.92969 24.5801
-1.69922 3.00781 24.5801
-1.69922 3.08594 24.5801
-1.66016 3.00781 24.5801
-1.66016 3.08594 24.5801
-1.62109 2.85156 24.5215
-1.62109 2.92969 24.5215
-1.58203 2.85156 24.5215
-1.58203 2.92969 24.5215
-1.62109 3.00781 24.5215
-1.62109 3.08594 24.5801
-1.58203 3.00781 24.5215
-1.58203 3.08594 24.5801
-1.54297 3.16406 24.5801
-1.50391 3.16406 24.5801
-1.46484 3.16406 24.5801
-1.42578 3.16406 24.5801
-1.69922 3.71094 24.873
-1.66016 3.71094 24.873
0.0195313 -0.898438 21.5918
0.0195313 -0.820313 21.6504
0.0585938 -0.898438 21.5918
0.0585938 -0.820313 21.6504
0.0195313 -0.742188 21.6504
0.0195313 -0.664063 21.6504
0.0585938 -0.742188 21.6504
0.0585938 -0.664063 21.709
0.0976563 -0.898438 21.6504
0.0976563 -0.820313 21.6504
0.136719 -0.898438 21.5918
0.136719 -0.820313 21.6504
0.0976563 -0.742188 21.6504
0.0976563 -0.664063 21.709
0.136719 -0.742188 21.709
0.136719 -0.664063 21.709
-1.23047 -5.03906 22.0605
-1.23047 -5.03906 22.1191
-1.19141 -5.03906 22.0605
-1.19141 -5.03906 22.1191
-1.23047 -5.03906 22.1777
-1.19141 -5.03906 22.1777
-1.15234 -5.11719 22.1191
-1.15234 -5.03906 22.0605
-1.11328 -5.11719 22.0605
-1.11328 -5.03906 22.1191
-1.15234 -5.03906 22.1777
-1.11328 -5.03906 22.2363
-1.23047 3.47656 23.2324
-1.23047 3.55469 23.291
-1.19141 3.47656 23.2324
-1.19141 3.55469 23.291
-1.23047 3.63281 23.3496
-1.23047 3.71094 23.4082
-1.19141 3.63281 23.3496
-1.19141 3.71094 23.4082
-1.15234 3.47656 23.2324
-1.15234 3.55469 23.291
-1.11328 3.47656 23.2324
-1.11328 3.47656 23.291
-1.11328 3.55469 23.3496
-1.15234 3.63281 23.3496
-1.15234 3.63281 23.4082
-1.11328 3.63281 23.4082
0.0585938 0.898438 22.5293
0.136719 0.742188 22.5293
0.0976563 0.820313 22.5293
0.0976563 0.898438 22.5293
0.136719 0.820313 22.5293
0.136719 0.898438 22.5879
-0.488281 1.21094 23.877
1.11328 0.976563 23.9941
1.11328 0.976563 24.0527
1.11328 1.05469 24.1113
1.15234 0.976563 24.1113
1.15234 1.05469 24.1113
1.11328 1.13281 24.1113
1.19141 0.976563 24.1113
-0.566406 1.05469 23.9941
-0.605469 0.976563 24.1113
-0.605469 1.05469 24.0527
-0.566406 1.05469 24.0527
-0.566406 1.05469 24.1113
-0.605469 1.13281 23.9941
-0.605469 1.21094 23.9355
-0.566406 1.13281 23.9355
-0.566406 1.21094 23.9355
-0.527344 1.05469 24.1113
-0.527344 1.13281 23.9941
-0.527344 1.21094 23.9355
-0.488281 1.13281 23.9355
-0.488281 1.13281 23.9941
-0.527344 1.13281 24.0527
-0.488281 1.13281 24.0527
-0.488281 1.13281 24.1113
-0.410156 1.36719 23.7598
-0.449219 1.28906 23.8184
-0.449219 1.36719 23.8184
-0.410156 1.28906 23.8184
-0.410156 1.36719 23.8184
-0.449219 1.44531 23.7598
-0.449219 1.52344 23.7012
-0.410156 1.44531 23.7012
-0.371094 1.28906 23.7598
-0.371094 1.36719 23.7012
-0.332031 1.28906 23.7012
-0.332031 1.28906 23.7598
-0.371094 1.28906 23.8184
-0.371094 1.28906 23.877
-0.332031 1.28906 23.8184
-0.332031 1.28906 23.877
-0.449219 -2.46094 23.584
-0.449219 -2.38281 23.584
-0.410156 -2.46094 23.6426
-0.410156 -2.38281 23.6426
-0.449219 -2.30469 23.6426
-0.449219 -2.22656 23.6426
-0.410156 -2.30469 23.6426
-0.371094 -2.46094 23.6426
-0.371094 -2.38281 23.6426
-0.332031 -2.46094 23.6426
-0.449219 1.21094 23.9355
-0.449219 1.21094 23.9941
-0.410156 1.21094 23.9355
-0.410156 1.21094 23.9941
-0.449219 1.13281 24.0527
-0.449219 1.13281 24.1113
-0.410156 1.13281 24.1113
-0.410156 1.21094 24.0527
-0.371094 1.21094 23.9941
-0.371094 1.21094 24.0527
-0.371094 1.21094 24.1113
-0.332031 1.21094 24.0527
-0.332031 1.21094 24.1113
-0.449219 -1.83594 23.877
-0.410156 -1.83594 23.877
-0.410156 -1.75781 23.877
-0.449219 -1.67969 23.877
-0.449219 -1.60156 23.877
-0.410156 -1.67969 23.877
-0.410156 -1.60156 23.877
-0.371094 -1.83594 23.877
-0.371094 -1.75781 23.877
-0.332031 -1.83594 23.877
-0.332031 -1.75781 23.877
-0.371094 -1.67969 23.877
-0.371094 -1.60156 23.877
-0.332031 -1.67969 23.877
-0.332031 -1.60156 23.877
-0.175781 1.21094 23.7012
-0.175781 1.21094 23.7598
-0.214844 1.21094 23.8184
-2.71484 5.03906 24.6387
-2.71484 5.03906 24.6973
-2.71484 5.11719 24.6387
-2.71484 5.11719 24.6973
-2.71484 5.03906 24.7559
-2.71484 5.11719 24.7559
-2.71484 5.11719 24.8145
-2.67578 5.03906 24.8145
-2.71484 5.19531 24.6387
-2.71484 5.19531 24.6973
-2.71484 5.27344 24.6387
-2.71484 5.27344 24.6973
-2.71484 5.19531 24.7559
-2.71484 5.19531 24.8145
-2.71484 5.27344 24.7559
-2.71484 5.27344 24.8145
-1.07422 2.61719 24.3457
-1.03516 2.53906 24.3457
-1.03516 2.61719 24.3457
-1.07422 2.69531 24.3457
-1.07422 2.77344 24.3457
-1.03516 2.69531 24.3457
-1.03516 2.77344 24.3457
-0.996094 2.53906 24.3457
-0.996094 2.61719 24.2871
-0.957031 2.53906 24.3457
-0.957031 2.61719 24.2871
-0.957031 2.69531 24.2285
-0.996094 2.69531 24.2871
-0.996094 2.77344 24.2871
-0.957031 2.77344 24.2871
-2.67578 4.80469 24.4629
-2.67578 4.80469 24.5215
-2.67578 4.80469 24.5801
-2.67578 4.88281 24.4629
-2.67578 4.96094 24.4043
-2.67578 4.96094 24.4629
-2.67578 4.88281 24.5215
-2.67578 4.88281 24.5801
-2.67578 4.96094 24.5215
-2.67578 4.96094 24.5801
-2.63672 4.72656 24.4043
-2.63672 4.80469 24.4043
-2.63672 4.80469 24.4629
-2.59766 4.72656 24.4629
-2.63672 4.72656 24.5801
-2.63672 4.80469 24.5215
-2.59766 4.72656 24.5215
-2.63672 4.88281 24.4043
-2.48047 4.41406 24.4043
-2.48047 4.41406 24.4629
-1.54297 -2.61719 20.6543
-1.54297 -2.53906 20.7129
-1.50391 -2.61719 20.6543
-1.50391 -2.53906 20.7129
-1.46484 -2.53906 20.6543
-1.46484 -2.53906 20.7129
-1.42578 -2.53906 20.6543
-1.42578 -2.53906 20.7129
-2.59766 4.80469 24.873
-2.63672 4.88281 24.873
-2.63672 4.96094 24.873
-2.63672 4.96094 24.9316
-2.59766 4.88281 24.9316
-2.59766 4.96094 24.9316
-2.55859 4.72656 24.873
-2.55859 4.80469 24.9316
-2.51953 4.72656 24.9316
-2.51953 4.80469 24.9316
-2.55859 4.88281 24.9316
-2.55859 4.96094 24.9902
-2.51953 4.88281 24.9902
-2.51953 4.96094 24.9902
-3.57422 -2.22656 19.7168
-3.57422 -2.22656 19.7754
-3.53516 -2.22656 19.7168
-3.53516 -2.22656 19.7754
-3.57422 -2.22656 19.834
-3.57422 -2.22656 19.8926
-3.53516 -2.30469 19.834
-3.53516 -2.30469 19.8926
-3.45703 -2.38281 19.7754
-3.49609 -2.38281 19.8926
-3.45703 -2.38281 19.834
-3.45703 -2.38281 19.8926
-3.49609 -2.30469 19.7168
-3.49609 -2.30469 19.7754
-3.45703 -2.30469 19.7168
-3.49609 -2.30469 19.834
1.73828 -4.72656 23.7012
1.73828 -4.72656 23.7598
1.73828 -4.80469 23.877
1.73828 -4.72656 23.8184
1.77734 -4.72656 23.8184
1.77734 -4.72656 23.877
1.81641 -4.72656 23.8184
1.81641 -4.72656 23.877
1.85547 -4.72656 23.877
-3.41797 -2.38281 19.7168
-3.41797 -2.38281 19.7754
-3.37891 -2.46094 19.7168
-3.37891 -2.46094 19.7754
-3.41797 -2.46094 19.834
-3.41797 -2.46094 19.8926
-3.37891 -2.46094 19.834
-3.37891 -2.53906 19.8926
-3.33984 -2.53906 19.7168
-3.33984 -2.53906 19.7754
-3.30078 -2.53906 19.7168
-3.30078 -2.53906 19.7754
-3.33984 -2.53906 19.834
-3.33984 -2.53906 19.8926
-3.30078 -2.61719 19.834
-3.30078 -2.61719 19.8926
-3.41797 -2.46094 19.9512
-3.41797 -2.46094 20.0098
-3.41797 -2.46094 20.0684
-3.41797 -2.38281 20.0684
-3.41797 -2.38281 20.127
-3.37891 -2.46094 20.127
-3.41797 -2.30469 20.127
-3.53516 -2.22656 19.9512
-3.49609 -2.38281 19.9512
-3.45703 -2.46094 19.9512
-3.45703 -2.46094 20.0098
-3.45703 -2.38281 20.0098
-3.49609 -2.30469 19.9512
-3.49609 -2.22656 20.0098
-3.45703 -2.30469 20.0098
-3.49609 -2.22656 20.0684
-3.45703 -2.30469 20.0684
-3.45703 -2.22656 20.127
-1.23047 -2.14844 23.1738
-1.23047 -2.07031 23.1738
-1.19141 -2.07031 23.1738
-1.23047 -1.99219 23.1738
-1.23047 -1.91406 23.1152
-1.19141 -1.99219 23.1738
-1.19141 -1.91406 23.1738
-1.15234 -1.99219 23.1738
-1.15234 -1.91406 23.1738
-3.37891 -2.53906 19.9512
-3.37891 -2.53906 20.0098
-3.41797 -2.53906 20.0684
-3.37891 -2.53906 20.0684
-3.37891 -2.53906 20.127
-3.30078 -2.69531 20.127
-3.33984 -2.61719 20.0098
-3.33984 -2.53906 19.9512
-3.30078 -2.61719 19.9512
-3.30078 -2.61719 20.0098
-3.33984 -2.61719 20.0684
-3.33984 -2.61719 20.127
-3.30078 -2.61719 20.0684
-3.26172 -1.91406 20.127
-3.22266 -1.91406 20.127
-3.18359 -1.91406 20.127
-3.14453 -1.91406 20.127
0.761719 -3.39844 22.2949
0.761719 -3.39844 22.3535
0.761719 -3.32031 22.2949
0.761719 -3.32031 22.3535
0.761719 -3.39844 22.4121
0.761719 -3.39844 22.4707
0.761719 -3.32031 22.4121
0.761719 -3.32031 22.4707
0.722656 -3.16406 22.4707
0.761719 -3.24219 22.4707
0.761719 -3.16406 22.4121
-3.02734 -1.75781 19.4824
-2.98828 -1.83594 19.4824
-2.98828 -1.75781 19.541
-2.98828 -1.83594 19.5996
-2.98828 -1.75781 19.5996
-2.98828 -1.75781 19.6582
-2.98828 -1.67969 19.4824
-2.98828 -1.67969 19.541
-2.98828 -1.60156 19.4824
-2.98828 -1.60156 19.541
-3.02734 -1.67969 19.6582
-3.02734 -1.60156 19.6582
-2.98828 -1.67969 19.5996
-2.98828 -1.60156 19.5996
-0.410156 0.742188 25.1074
-0.449219 0.898438 25.1074
-0.410156 0.820313 25.1074
-0.410156 0.898438 25.1074
-0.371094 0.664063 25.1074
-0.371094 0.742188 25.1074
-0.332031 0.664063 25.1074
-0.332031 0.742188 25.1074
-0.371094 0.820313 25.1074
-0.371094 0.898438 25.166
-0.332031 0.820313 25.166
-0.332031 0.898438 25.2246
-2.94922 -1.91406 20.0098
-2.91016 -1.91406 19.9512
-2.91016 -1.91406 20.0098
-2.94922 -1.99219 20.127
-2.94922 -1.91406 20.0684
-2.91016 -1.99219 20.0684
-2.91016 -1.99219 20.127
-2.83203 -2.07031 20.127
-2.87109 -1.91406 19.9512
-2.87109 -1.91406 20.0098
-2.83203 -1.99219 19.9512
-2.83203 -1.99219 20.0098
-2.87109 -1.99219 20.0684
-2.87109 -1.99219 20.127
-2.83203 -1.99219 20.0684
-2.94922 -2.46094 19.6582
-2.94922 -2.38281 19.5996
-2.91016 -2.46094 19.6582
-2.91016 -2.38281 19.6582
-2.94922 -2.22656 19.541
-2.94922 -2.30469 19.5996
-2.91016 -2.30469 19.5996
-2.91016 -2.22656 19.5996
-2.87109 -2.38281 19.6582
-2.87109 -2.30469 19.6582
-2.87109 -2.22656 19.5996
-2.83203 -2.30469 19.6582
-2.83203 -2.22656 19.5996
-2.79297 -2.07031 19.7168
-2.75391 -2.07031 19.7168
-2.75391 -2.07031 19.7754
-2.75391 -2.07031 19.834
-2.75391 -2.07031 19.8926
-2.79297 -1.99219 19.7754
-2.79297 -1.99219 19.834
-2.79297 -1.99219 19.8926
-2.71484 -2.14844 19.7168
-2.71484 -2.14844 19.7754
-2.71484 -2.14844 19.834
-2.71484 -2.14844 19.8926
-2.67578 -2.14844 19.834
-2.67578 -2.14844 19.8926
0.410156 4.72656 27.6855
0.410156 4.72656 27.7441
0.449219 4.80469 27.6855
0.449219 4.80469 27.7441
0.449219 4.72656 27.8027
0.449219 4.88281 27.6855
-2.75391 -2.07031 19.9512
-2.75391 -2.07031 20.0098
-2.79297 -2.07031 20.0684
-2.79297 -2.07031 20.127
-2.75391 -2.07031 20.0684
-2.75391 -2.07031 20.127
-2.79297 -1.99219 19.9512
-2.79297 -1.99219 20.0098
-2.71484 -2.07031 19.9512
-2.71484 -2.07031 20.0098
-2.67578 -2.14844 19.9512
-2.67578 -2.14844 20.0098
-2.71484 -2.14844 20.127
-2.71484 -2.07031 20.0684
-2.67578 -2.14844 20.0684
-2.67578 -2.14844 20.127
-3.10547 -2.22656 20.3613
-3.06641 -2.22656 20.3613
-3.02734 -2.22656 20.3613
-2.98828 -2.22656 20.3613
-0.292969 1.83594 24.873
-0.292969 1.83594 24.9316
-0.253906 1.83594 24.873
-0.292969 1.83594 24.9902
0.996094 6.60156 28.3301
1.03516 6.60156 28.2715
1.03516 6.60156 28.3301
1.07422 6.60156 28.2715
1.07422 6.67969 28.3301
-1.58203 -3.55469 22.7637
-1.58203 -3.47656 22.7637
-2.79297 -2.46094 20.5957
-2.79297 -2.38281 20.5371
-2.75391 -2.46094 20.5957
-2.75391 -2.38281 20.5371
-2.79297 -2.30469 20.4785
-2.79297 -2.22656 20.4199
-2.75391 -2.30469 20.4199
-2.75391 -2.30469 20.4785
-2.71484 -2.38281 20.4785
-2.67578 -2.38281 20.4785
-2.71484 -2.46094 20.5957
-2.71484 -2.38281 20.5371
-2.67578 -2.46094 20.5957
-2.67578 -2.38281 20.5371
-2.71484 -2.30469 20.4199
-2.67578 -2.30469 20.4199
-2.79297 -2.14844 20.1855
-2.79297 -2.14844 20.2441
-2.75391 -2.14844 20.1855
-2.71484 -2.14844 20.1855
-1.07422 -5.58594 21.5918
-1.07422 -5.50781 21.5918
-1.03516 -5.58594 21.5918
-1.03516 -5.50781 21.5918
-1.07422 -5.42969 21.6504
-1.07422 -5.35156 21.5918
-1.07422 -5.35156 21.6504
-1.03516 -5.42969 21.5918
-1.03516 -5.35156 21.5918
-1.03516 -5.35156 21.6504
-0.996094 -5.58594 21.5918
-0.996094 -5.42969 21.5918
-0.996094 -5.35156 21.5918
-0.996094 -5.35156 21.6504
-0.957031 -5.35156 21.5918
-0.917969 0.976563 21.9434
-0.917969 1.05469 22.002
-0.878906 0.976563 21.9434
-0.878906 1.05469 22.002
-0.839844 0.976563 22.002
-0.839844 1.05469 22.002
-0.800781 0.976563 22.002
-0.800781 1.05469 22.002
0.644531 3.47656 27.5684
0.644531 3.55469 27.627
0.683594 3.47656 27.5684
0.683594 3.55469 27.627
0.683594 3.63281 27.627
0.761719 3.47656 27.5098
0.722656 3.47656 27.5684
0.722656 3.55469 27.627
0.761719 3.55469 27.5684
0.761719 3.55469 27.627
0.722656 3.63281 27.627
0.761719 3.63281 27.627
-1.38672 -5.27344 22.002
-1.38672 -5.03906 21.9434
-1.38672 -5.03906 22.002
-1.34766 -5.03906 22.002
-1.30859 -5.03906 21.8262
-1.26953 -5.03906 21.8262
-1.26953 -5.03906 21.8848
-1.85547 5.03906 25.166
-1.85547 5.11719 25.166
-1.81641 5.03906 25.1074
-1.81641 5.11719 25.166
-1.81641 5.19531 25.166
-1.81641 5.27344 25.166
-1.85547 5.19531 25.2246
-1.85547 5.27344 25.2246
-1.77734 5.03906 25.1074
-1.77734 5.11719 25.1074
-1.77734 5.19531 25.1074
-1.77734 5.27344 25.1074
-1.73828 5.19531 25.1074
-1.73828 5.27344 25.1074
-1.07422 -5.19531 21.8262
-1.07422 -5.19531 21.9434
-1.07422 -5.11719 21.8848
-1.03516 -5.11719 21.8262
-1.03516 -5.11719 21.8848
-1.07422 -5.11719 22.002
-1.03516 -5.11719 21.9434
-1.03516 -5.11719 22.002
-0.996094 -5.11719 21.8262
-0.996094 -5.11719 21.8848
-0.957031 -5.11719 21.8262
-0.957031 -5.11719 21.8848
-0.996094 -5.11719 21.9434
-0.996094 -5.03906 22.002
-0.957031 -5.03906 21.9434
-0.957031 -5.03906 22.002
-0.917969 -5.35156 21.5918
-1.89453 1.67969 22.7051
-1.89453 1.75781 22.7051
-0.917969 -5.19531 21.5918
-0.878906 -5.27344 21.5918
-0.878906 -5.19531 21.5918
-0.917969 -5.11719 21.6504
-0.878906 -5.11719 21.6504
-0.917969 -5.11719 21.709
-0.917969 -5.11719 21.7676
-0.878906 -5.11719 21.709
-0.878906 -5.11719 21.7676
-0.839844 -5.19531 21.5918
-0.800781 -5.19531 21.5918
-0.839844 -5.11719 21.6504
-0.800781 -5.11719 21.6504
-0.839844 -5.03906 21.709
-0.839844 -5.03906 21.7676
-0.800781 -5.03906 21.709
-0.800781 -5.03906 21.7676
1.11328 5.58594 28.3887
1.15234 5.50781 28.3887
1.15234 5.58594 28.3887
1.19141 5.58594 28.3887
1.23047 5.58594 28.3887
-1.19141 -5.03906 22.2949
-1.69922 -4.88281 22.2949
-1.66016 -4.88281 22.2949
-1.69922 -4.80469 22.2949
-1.69922 -4.72656 22.2949
-1.66016 -4.80469 22.2949
-1.66016 -4.72656 22.3535
-1.62109 -4.96094 22.2949
-1.62109 -4.88281 22.2949
-1.58203 -4.96094 22.2949
-1.58203 -4.88281 22.3535
-1.62109 -4.80469 22.3535
-1.62109 -4.72656 22.3535
-1.58203 -4.80469 22.3535
-1.58203 -4.72656 22.3535
-1.54297 -5.03906 22.2949
-1.50391 -5.03906 22.2949
-1.46484 -5.11719 22.2949
-1.46484 -5.03906 22.2949
-1.42578 -5.11719 22.2949
-1.42578 -5.03906 22.3535
2.83203 6.60156 28.3887
2.83203 6.60156 28.4473
2.87109 6.67969 28.3887
2.87109 6.67969 28.4473
2.83203 6.60156 28.5059
2.83203 6.67969 28.5059
2.83203 6.75781 28.3887
2.83203 6.75781 28.4473
2.87109 6.75781 28.3887
2.91016 6.67969 28.3887
-1.38672 -4.96094 22.3535
-1.38672 -4.88281 22.3535
-1.34766 -4.96094 22.3535
-1.34766 -4.96094 22.4121
-1.34766 -4.88281 22.4121
-1.38672 -4.80469 22.4121
-1.38672 -4.72656 22.4707
-1.34766 -4.80469 22.4121
-1.34766 -4.72656 22.4707
-1.30859 -4.96094 22.3535
-1.26953 -4.96094 22.2949
-1.30859 -4.96094 22.4121
-1.30859 -4.88281 22.4121
-1.26953 -4.96094 22.4121
-1.26953 -4.88281 22.4121
-1.30859 -4.80469 22.4707
-1.30859 -4.72656 22.4707
-1.26953 -4.80469 22.4707
-2.79297 -0.664063 18.8965
-2.79297 -0.664063 18.9551
-1.38672 -4.64844 22.4707
-1.38672 -4.57031 22.4707
-1.34766 -4.64844 22.4707
-2.28516 4.10156 23.9355
-2.28516 4.10156 23.9941
-2.28516 4.17969 23.9941
-2.32422 4.10156 24.0527
-2.32422 4.17969 24.0527
-2.32422 4.25781 23.9941
-2.32422 4.33594 23.9941
-2.28516 4.25781 23.9941
-2.28516 4.33594 23.9355
-2.32422 4.33594 24.0527
-2.24609 4.10156 23.9355
-2.24609 4.17969 23.9355
-2.20703 4.10156 23.9355
-2.24609 4.25781 23.9355
-2.24609 4.33594 23.9355
-2.20703 4.25781 23.9355
-2.20703 4.33594 23.9355
1.50391 -4.64844 23.4668
1.54297 -4.64844 23.4668
-1.42578 -4.41406 22.5293
-0.253906 -5.66406 19.9512
-0.175781 -5.89844 19.9512
-0.175781 -5.82031 19.9512
-0.214844 -5.74219 19.9512
-0.214844 -5.66406 19.9512
-0.175781 -5.74219 20.0098
-0.175781 -5.66406 20.0098
-1.26953 -4.72656 22.5293
-3.14453 -2.85156 20.0098
-3.18359 -2.85156 20.0684
-3.18359 -2.85156 20.127
-3.14453 -2.85156 20.0684
-3.14453 -2.85156 20.127
-1.69922 1.91406 22.5879
-1.66016 1.91406 22.5879
-1.66016 1.99219 22.5879
-1.69922 1.99219 22.6465
-1.69922 2.07031 22.6465
-1.69922 2.14844 22.7051
-1.66016 2.07031 22.6465
-1.66016 2.14844 22.6465
-1.62109 1.91406 22.5293
-1.62109 1.99219 22.5879
-1.58203 1.91406 22.5293
-1.58203 1.99219 22.5879
-1.62109 2.07031 22.5879
-1.58203 2.07031 22.5879
-1.62109 2.14844 22.6465
-1.58203 2.14844 22.6465
0.0195313 -5.03906 22.2949
0.0195313 -5.03906 22.3535
0.0585938 -5.03906 22.2949
0.0585938 -5.03906 22.3535
0.0195313 -5.11719 22.4121
0.0195313 -5.11719 22.4707
0.0585938 -5.11719 22.4121
0.0585938 -5.11719 22.4707
0.0976563 -5.03906 22.2949
0.0976563 -5.03906 22.3535
0.136719 -5.03906 22.2949
0.136719 -5.03906 22.3535
0.0976563 -5.11719 22.4121
0.0976563 -5.11719 22.4707
0.136719 -5.03906 22.4121
0.136719 -5.03906 22.4707
-3.06641 -2.85156 19.8926
-3.02734 -2.85156 19.8926
-2.98828 -2.85156 19.8926
-0.761719 -2.30469 20.6543
-0.761719 -2.22656 20.7129
-0.722656 -2.30469 20.6543
-0.722656 -2.22656 20.6543
-0.683594 -2.22656 20.6543
-0.644531 -2.22656 20.6543
-3.10547 -2.53906 19.6582
-3.06641 -2.53906 19.6582
-3.02734 -2.53906 19.6582
-2.94922 -2.85156 19.8926
-2.91016 -2.85156 19.8926
-2.87109 -2.85156 19.8926
-2.83203 -2.85156 19.8926
-2.94922 -2.53906 19.6582
-1.23047 -0.507813 24.1699
-1.19141 -0.585938 24.1699
-1.19141 -0.507813 24.2285
-1.23047 -0.429688 24.2285
-1.23047 -0.351563 24.2285
-1.19141 -0.429688 24.2285
-1.19141 -0.351563 24.2871
-1.15234 -0.585938 24.2285
-1.15234 -0.507813 24.2285
-1.11328 -0.585938 24.2285
-1.11328 -0.507813 24.2871
-1.15234 -0.429688 24.2871
-1.15234 -0.351563 24.2871
-1.11328 -0.429688 24.2871
-1.11328 -0.351563 24.3457
1.77734 -4.64844 23.7012
1.77734 -4.64844 23.7598
1.81641 -4.64844 23.7598
1.81641 -4.57031 23.7012
1.85547 -4.57031 23.7598
1.85547 -4.64844 23.8184
1.85547 -4.49219 23.7012
1.85547 -4.41406 23.7012
0.644531 2.53906 24.9316
0.683594 2.53906 24.9316
0.644531 2.53906 24.9902
0.644531 2.61719 25.0488
0.683594 2.61719 24.9902
0.683594 2.61719 25.0488
0.722656 2.53906 24.9316
0.722656 2.61719 24.9902
0.722656 2.61719 25.0488
0.761719 2.53906 24.9902
0.761719 2.61719 25.0488
0.488281 2.69531 25.1074
0.488281 2.77344 25.166
0.527344 2.69531 25.1074
0.527344 2.77344 25.166
0.566406 2.69531 25.1074
0.566406 2.77344 25.166
0.605469 2.69531 25.1074
0.605469 2.77344 25.166
0.605469 2.77344 25.2246
0.800781 2.69531 25.1074
0.800781 2.77344 25.166
0.839844 2.69531 25.1074
0.839844 2.69531 25.166
0.800781 2.77344 25.2246
0.839844 2.77344 25.2246
0.878906 2.61719 25.1074
0.917969 2.61719 25.1074
0.878906 2.69531 25.166
0.917969 2.69531 25.166
0.878906 2.77344 25.2246
0.878906 2.77344 25.2832
0.917969 2.69531 25.2246
0.917969 2.77344 25.2832
-1.07422 -1.44531 23.7012
-1.03516 -1.44531 23.7012
-1.03516 -1.44531 23.7598
-1.07422 -1.36719 23.7598
-1.07422 -1.28906 23.8184
-1.07422 -1.28906 23.877
-1.03516 -1.36719 23.8184
-1.03516 -1.28906 23.877
-0.996094 -1.44531 23.7012
-0.996094 -1.44531 23.7598
-0.957031 -1.52344 23.7012
-0.957031 -1.44531 23.7598
-0.957031 -1.44531 23.8184
-0.996094 -1.36719 23.8184
-0.996094 -1.28906 23.877
-0.957031 -1.36719 23.877
0.878906 0.898438 23.7012
0.917969 0.820313 23.7012
0.917969 0.898438 23.7012
-0.0976563 0.664063 25.3418
-0.0976563 0.742188 25.3418
-0.0976563 0.820313 25.3418
-0.0976563 0.898438 25.3418
-0.0585938 0.664063 25.3418
-0.0585938 0.742188 25.3418
-0.0195313 0.664063 25.3418
-0.0195313 0.742188 25.3418
-0.0585938 0.820313 25.3418
-0.0585938 0.898438 25.3418
-0.0195313 0.820313 25.3418
-0.0195313 0.898438 25.4004
0.957031 2.61719 25.1074
0.957031 2.61719 25.166
0.996094 2.53906 25.1074
0.996094 2.61719 25.1074
0.996094 2.61719 25.166
0.957031 2.69531 25.2246
0.957031 2.77344 25.2832
0.996094 2.69531 25.2246
0.996094 2.77344 25.2832
1.03516 2.53906 25.1074
1.03516 2.61719 25.166
1.07422 2.53906 25.166
1.03516 2.61719 25.2246
1.07422 2.61719 25.2246
1.07422 2.61719 25.2832
1.03516 2.69531 25.2832
-2.83203 0.664063 18.6035
-2.87109 0.664063 18.6621
-2.87109 0.664063 18.7207
-2.87109 0.742188 18.7207
-2.83203 0.742188 18.6621
-2.83203 0.820313 18.6621
-2.83203 0.820313 18.7207
0.449219 -3.78906 22.9395
-0.527344 1.28906 24.6387
-0.527344 1.28906 24.6973
-0.488281 1.36719 24.6387
-0.488281 1.36719 24.6973
-0.527344 1.28906 24.7559
-0.488281 1.28906 24.8145
-0.488281 1.36719 24.7559
-0.488281 1.36719 24.8145
0.527344 -3.94531 23.0566
0.488281 -3.94531 23.1152
0.488281 -3.94531 23.1738
0.527344 -3.94531 23.1152
0.527344 -3.94531 23.1738
0.488281 -3.86719 22.998
0.488281 -3.86719 23.0566
0.527344 -3.86719 22.998
0.566406 -3.94531 22.998
0.566406 -3.94531 23.0566
0.605469 -3.94531 22.998
0.605469 -3.94531 23.0566
0.566406 -3.94531 23.1152
0.566406 -3.94531 23.1738
0.605469 -3.94531 23.1152
0.605469 -3.94531 23.1738
-3.10547 -2.14844 19.4824
-3.06641 -2.14844 19.4824
-3.02734 -2.14844 19.4824
-3.02734 -2.07031 19.4824
-2.98828 -2.14844 19.4824
-2.98828 -2.07031 19.4824
-0.175781 1.52344 23.0566
-0.214844 1.52344 23.1738
-0.175781 1.44531 23.1738
-0.175781 1.52344 23.1152
-2.16797 -3.78906 22.0605
-2.12891 -3.86719 22.0605
-2.12891 -3.78906 22.1191
-2.08984 -3.94531 22.0605
-2.08984 -3.94531 22.1191
-2.05078 -4.02344 22.0605
-2.05078 -4.02344 22.1191
-2.05078 -3.94531 22.1191
-2.08984 -3.86719 22.1191
-2.08984 -3.78906 22.1777
-2.05078 -3.86719 22.1777
-2.05078 -3.78906 22.1777
-3.26172 -2.14844 19.4238
-3.26172 -2.07031 19.3652
-3.22266 -2.14844 19.4238
-3.22266 -2.07031 19.3652
-3.26172 -1.99219 19.3066
-3.26172 -1.91406 19.248
-3.22266 -1.91406 19.3066
-3.22266 -1.99219 19.3652
-3.18359 -2.14844 19.4238
-3.18359 -2.07031 19.3652
-3.14453 -2.07031 19.3652
-3.14453 -2.07031 19.4238
-3.18359 -1.91406 19.3066
-3.14453 -1.91406 19.3066
-3.18359 -1.99219 19.3652
-3.14453 -1.99219 19.3652
-3.10547 -2.07031 19.4238
-3.06641 -2.07031 19.4238
-3.10547 -1.91406 19.3066
-3.10547 -1.99219 19.3652
-3.06641 -1.99219 19.4238
-3.06641 -1.91406 19.3652
-3.02734 -1.99219 19.4238
-3.02734 -1.91406 19.4238
-2.98828 -1.99219 19.4238
-2.98828 -1.91406 19.4238
-2.94922 -1.99219 19.4238
-2.94922 -1.91406 19.4238
-2.91016 -1.91406 19.4238
-2.16797 4.10156 23.877
-2.16797 4.17969 23.877
-2.12891 4.10156 23.8184
-2.12891 4.17969 23.8184
-2.16797 4.25781 23.877
-2.16797 4.33594 23.877
-2.12891 4.25781 23.877
-2.12891 4.33594 23.877
-2.05078 4.10156 23.7598
-2.05078 4.17969 23.7598
-2.08984 4.10156 23.8184
-2.08984 4.17969 23.8184
-2.08984 4.25781 23.8184
-2.08984 4.33594 23.877
-2.05078 4.25781 23.8184
-2.05078 4.33594 23.8184
-3.14453 -2.14844 19.4824
-2.48047 -2.46094 19.834
-2.48047 -2.38281 19.834
-2.44141 -2.46094 19.8926
-2.44141 -2.38281 19.834
-2.48047 -2.30469 19.7754
-2.48047 -2.22656 19.7754
-2.48047 -2.30469 19.834
-2.48047 -2.30469 19.8926
-2.44141 -2.30469 19.834
-2.44141 -2.30469 19.8926
-2.40234 -2.46094 19.8926
-2.40234 -2.38281 19.8926
-2.36328 -2.46094 19.8926
-2.36328 -2.38281 19.8926
-1.23047 -1.83594 21.1816
-1.19141 -1.83594 21.1816
-1.23047 -1.75781 21.2402
-1.19141 -1.75781 21.2402
-1.23047 -1.67969 21.2402
-1.23047 -1.60156 21.2988
-1.19141 -1.67969 21.2402
-1.19141 -1.60156 21.2988
-1.15234 -1.83594 21.1816
-1.15234 -1.75781 21.1816
-1.11328 -1.83594 21.1816
-1.11328 -1.75781 21.1816
-1.15234 -1.67969 21.2402
-1.15234 -1.60156 21.2988
-1.11328 -1.67969 21.2402
-1.11328 -1.60156 21.2988
0.0976563 1.60156 24.1113
0.136719 1.60156 24.0527
0.136719 1.60156 24.1113
-0.449219 -2.38281 20.6543
-0.410156 -2.46094 20.6543
-0.410156 -2.38281 20.6543
-0.449219 -2.30469 20.6543
-0.449219 -2.22656 20.7129
-0.410156 -2.30469 20.6543
-0.410156 -2.22656 20.7129
-0.410156 -2.22656 20.7715
-0.371094 -2.46094 20.6543
-0.371094 -2.38281 20.6543
-0.332031 -2.46094 20.6543
-0.332031 -2.38281 20.7129
-0.371094 -2.30469 20.7129
-0.332031 -2.30469 20.7129
-0.371094 -2.22656 20.7715
-0.332031 -2.22656 20.7715
-0.332031 -2.22656 20.8301
-0.0976563 -1.91406 21.123
-0.0585938 -2.07031 21.123
-0.0195313 -2.07031 21.123
-0.0585938 -1.99219 21.123
-0.0585938 -1.91406 21.123
-0.0195313 -1.99219 21.1816
-0.0195313 -1.91406 21.1816
1.26953 -4.88281 23.4668
1.26953 -4.88281 23.5254
1.30859 -4.88281 23.4668
1.30859 -4.88281 23.5254
1.26953 -4.88281 23.584
1.26953 -4.88281 23.6426
1.30859 -4.88281 23.584
1.30859 -4.88281 23.6426
1.34766 -4.88281 23.4668
1.34766 -4.88281 23.5254
1.38672 -4.88281 23.5254
1.34766 -4.88281 23.584
1.34766 -4.88281 23.6426
1.38672 -4.88281 23.584
1.38672 -4.88281 23.6426
1.38672 -4.80469 23.4668
1.15234 -4.64844 22.998
1.19141 -4.64844 22.998
1.19141 -4.64844 23.0566
1.23047 -4.64844 23.0566
1.23047 -4.57031 22.998
1.30859 -4.25781 23.1152
1.26953 -4.17969 22.998
1.26953 -4.17969 23.0566
1.30859 -4.17969 22.998
1.30859 -4.17969 23.0566
1.26953 -4.17969 23.1152
1.26953 -4.17969 23.1738
1.30859 -4.17969 23.1738
1.34766 -4.25781 23.0566
1.38672 -4.33594 22.998
1.38672 -4.25781 22.998
1.38672 -4.25781 23.0566
1.38672 -4.25781 23.1738
1.34766 -4.17969 22.998
1.34766 -4.17969 23.1152
1.34766 -4.17969 23.1738
1.38672 -4.17969 23.1152
1.42578 -4.25781 23.2324
1.42578 -4.25781 23.3496
1.42578 -4.25781 23.4082
1.46484 -4.25781 23.3496
1.46484 -4.25781 23.4082
1.42578 -4.17969 23.291
1.46484 -4.17969 23.2324
1.46484 -4.17969 23.291
1.50391 -4.25781 23.291
1.54297 -4.33594 23.2324
1.54297 -4.25781 23.291
1.50391 -4.33594 23.3496
1.50391 -4.25781 23.4082
1.54297 -4.33594 23.3496
1.54297 -4.25781 23.4082
1.50391 -4.17969 23.2324
1.50391 -4.17969 23.291
1.54297 -4.17969 23.2324
-1.38672 2.22656 24.3457
-1.34766 2.22656 24.3457
-1.34766 2.30469 24.3457
-1.30859 2.22656 24.3457
-1.30859 2.30469 24.3457
-1.26953 2.22656 24.3457
-1.26953 2.30469 24.3457
-1.26953 2.38281 24.3457
-1.15234 2.69531 24.3457
-1.11328 2.69531 24.3457
-1.11328 2.77344 24.3457
-1.07422 2.22656 24.2871
-1.07422 2.30469 24.2871
-1.03516 2.22656 24.2871
-1.03516 2.30469 24.2871
-1.07422 2.38281 24.2871
-1.07422 2.46094 24.3457
-1.03516 2.38281 24.2871
-1.03516 2.46094 24.3457
-0.957031 2.22656 24.2285
-0.996094 2.22656 24.2871
-0.996094 2.30469 24.2871
-0.957031 2.30469 24.2871
-0.996094 2.38281 24.2871
-0.996094 2.46094 24.3457
-0.957031 2.38281 24.2871
-0.957031 2.46094 24.2871
-1.07422 1.60156 24.2285
-1.07422 1.67969 24.2285
-1.03516 1.60156 24.1699
-1.03516 1.67969 24.2285
-1.07422 1.75781 24.2871
-1.07422 1.83594 24.2871
-1.03516 1.75781 24.2871
-1.03516 1.83594 24.2871
-0.996094 1.60156 24.1699
-0.996094 1.67969 24.2285
-0.957031 1.60156 24.1699
-0.957031 1.67969 24.1699
-0.996094 1.75781 24.2285
-0.957031 1.75781 24.2285
-0.957031 1.83594 24.2285
-0.996094 1.83594 24.2871
0.0195313 -4.33594 21.5918
0.0585938 -4.33594 21.5918
0.0585938 -4.33594 21.6504
0.0976563 -4.33594 21.6504
0.0976563 -4.25781 21.5918
0.136719 -4.33594 21.6504
0.136719 -4.25781 21.5918
0.136719 -4.33594 21.709
0.332031 4.41406 27.627
0.332031 4.49219 27.5684
0.332031 4.49219 27.627
0.332031 4.57031 27.4512
0.332031 4.57031 27.5098
0.332031 4.64844 27.5098
0.371094 4.64844 27.4512
0.332031 4.57031 27.5684
0.371094 4.57031 27.627
0.371094 4.64844 27.5684
0.371094 4.64844 27.627
-0.917969 -4.64844 22.8809
-0.917969 -4.57031 22.8809
-0.878906 -4.64844 22.8809
-0.878906 -4.57031 22.9395
-0.917969 -4.49219 22.9395
-0.839844 -4.64844 22.9395
-0.800781 -4.64844 22.9395
-1.07422 -6.52344 19.541
-1.07422 -6.44531 19.541
-1.03516 -6.52344 19.541
-1.03516 -6.44531 19.541
-1.07422 -6.36719 19.541
-1.07422 -6.28906 19.541
-1.03516 -6.36719 19.4824
-1.03516 -6.28906 19.4824
-0.996094 -6.52344 19.541
-0.996094 -6.44531 19.541
-0.957031 -6.52344 19.541
-0.957031 -6.44531 19.541
-0.996094 -6.36719 19.4824
-0.996094 -6.28906 19.4824
-0.957031 -6.36719 19.4824
-0.957031 -6.28906 19.4824
-1.07422 -6.83594 19.7168
-0.917969 -6.83594 19.6582
-0.917969 -6.75781 19.5996
-0.878906 -6.83594 19.5996
-0.878906 -6.83594 19.6582
-0.878906 -6.75781 19.5996
-0.917969 -6.60156 19.541
-0.878906 -6.60156 19.541
-0.917969 -6.67969 19.5996
-0.878906 -6.67969 19.5996
-0.839844 -6.83594 19.6582
-0.839844 -6.75781 19.5996
-0.800781 -6.83594 19.6582
-0.800781 -6.75781 19.5996
-0.839844 -6.60156 19.541
-0.800781 -6.60156 19.541
-0.839844 -6.67969 19.5996
-0.800781 -6.67969 19.5996
0.644531 0.429688 22.7637
0.683594 0.429688 22.7637
0.683594 0.429688 22.8223
0.644531 0.507813 22.8223
0.644531 0.507813 22.8809
0.644531 0.507813 22.9395
0.683594 0.507813 22.8809
0.683594 0.507813 22.9395
0.722656 0.351563 22.7637
0.722656 0.429688 22.8223
0.761719 0.351563 22.7637
0.761719 0.429688 22.8223
0.722656 0.429688 22.8809
0.761719 0.429688 22.8809
0.761719 0.429688 22.9395
0.722656 0.507813 22.9395
0.0585938 -5.89844 20.6543
0.0585938 -5.89844 20.7129
0.0585938 -5.82031 20.6543
0.0585938 -5.82031 20.7129
0.0195313 -5.89844 20.8301
0.0585938 -5.89844 20.7715
0.0585938 -5.82031 20.7715
0.0585938 -5.82031 20.8301
0.0585938 -5.74219 20.6543
0.0585938 -5.74219 20.7129
0.0585938 -5.66406 20.6543
0.0585938 -5.66406 20.7129
0.0195313 -5.74219 20.8301
0.0195313 -5.66406 20.7715
0.0585938 -5.74219 20.7715
0.0585938 -5.74219 20.8301
-1.07422 -6.21094 19.541
-1.07422 -6.13281 19.541
-1.03516 -6.21094 19.541
-1.03516 -6.13281 19.541
-1.07422 -6.05469 19.5996
-1.07422 -5.97656 19.6582
-1.03516 -6.05469 19.5996
-1.03516 -5.97656 19.5996
-0.996094 -6.21094 19.541
-0.996094 -6.13281 19.541
-0.957031 -6.21094 19.4824
-0.957031 -6.13281 19.4824
-0.957031 -6.05469 19.541
-0.996094 -6.05469 19.5996
-0.996094 -5.97656 19.5996
-0.957031 -5.97656 19.5996
-2.91016 -1.21094 19.248
-2.91016 -1.21094 19.3066
-2.91016 -1.21094 19.3652
-2.91016 -1.21094 19.4238
-2.91016 -1.13281 19.4238
-2.91016 -1.05469 19.4238
-2.91016 -0.976563 19.4238
-2.87109 -1.13281 19.248
-2.87109 -1.13281 19.3066
-2.87109 -1.13281 19.3652
-2.87109 -1.05469 19.248
-2.87109 -1.05469 19.3066
-2.83203 -0.976563 19.248
-2.83203 -0.976563 19.3066
-2.87109 -1.05469 19.3652
-2.87109 -1.05469 19.4238
-2.87109 -0.976563 19.3652
-2.87109 -0.976563 19.4238
-1.85547 -5.27344 22.0605
-1.85547 -5.19531 22.0605
-1.81641 -5.27344 22.0605
-1.81641 -5.19531 22.0605
-1.85547 -5.11719 22.1191
-1.81641 -5.11719 22.1191
-1.85547 -5.03906 22.1777
-1.81641 -5.11719 22.1777
-1.81641 -5.03906 22.1777
-1.77734 -5.27344 22.0605
-1.77734 -5.19531 22.1191
-1.73828 -5.27344 22.0605
-1.73828 -5.19531 22.1191
-1.73828 -5.19531 22.1777
-1.77734 -5.11719 22.1777
-1.77734 -5.03906 22.1777
-1.73828 -5.11719 22.1777
-1.73828 -5.03906 22.1777
-1.85547 -4.96094 22.1777
-1.85547 -4.88281 22.1777
-1.81641 -4.96094 22.1777
-1.81641 -4.88281 22.2363
-1.85547 -4.80469 22.2363
-1.81641 -4.80469 22.2363
-1.77734 -4.96094 22.1777
-1.77734 -4.88281 22.2363
-1.73828 -4.96094 22.2363
-1.73828 -4.88281 22.2363
-1.54297 -5.27344 22.0605
-1.54297 -5.27344 22.1191
-1.50391 -5.27344 22.0605
-1.50391 -5.27344 22.1191
-1.54297 -5.27344 22.1777
-1.54297 -5.19531 22.2363
-1.50391 -5.19531 22.1777
-1.50391 -5.19531 22.2363
-1.54297 -5.11719 22.2363
-1.50391 -5.11719 22.2363
-1.46484 -5.27344 22.0605
-1.46484 -5.19531 22.1191
-1.42578 -5.27344 22.0605
-1.42578 -5.19531 22.1191
-1.46484 -5.19531 22.1777
-1.46484 -5.19531 22.2363
-1.42578 -5.19531 22.1777
-1.42578 -5.19531 22.2363
-3.26172 -2.69531 20.1855
-3.26172 -2.69531 20.2441
-3.22266 -2.77344 20.1855
-3.22266 -2.77344 20.2441
-3.26172 -2.69531 20.3027
-3.22266 -2.77344 20.3027
-3.22266 -2.77344 20.3613
-3.22266 -2.69531 20.3613
-3.26172 -2.61719 20.3027
-3.26172 -2.53906 20.3613
-3.22266 -2.61719 20.3613
1.11328 -4.10156 22.4707
1.15234 -4.10156 22.4707
1.89453 6.91406 28.3887
1.89453 6.91406 28.4473
1.93359 6.91406 28.3887
1.93359 6.91406 28.4473
1.89453 6.91406 28.5059
1.89453 6.91406 28.5645
1.93359 6.91406 28.5059
1.93359 6.99219 28.5645
1.97266 6.91406 28.3887
1.97266 6.99219 28.4473
2.01172 6.91406 28.3887
2.01172 6.99219 28.4473
1.97266 6.91406 28.5059
1.97266 6.99219 28.5645
2.01172 6.99219 28.5059
2.01172 6.99219 28.5645
0.917969 0.664063 25.2832
0.371094 -0.195313 22.0605
0.371094 -0.117188 22.0605
0.371094 -0.0390625 22.0605
0.410156 -0.273438 22.0605
0.410156 -0.195313 22.0605
0.449219 -0.273438 22.1191
0.449219 -0.195313 22.1191
0.410156 -0.117188 22.0605
0.410156 -0.0390625 22.1191
0.449219 -0.117188 22.1191
0.449219 -0.0390625 22.1191
0.957031 0.664063 25.2832
0.957031 0.742188 25.2832
0.996094 0.664063 25.2246
0.996094 0.742188 25.2832
1.03516 0.664063 25.166
1.07422 0.664063 25.1074
1.07422 0.742188 25.166
1.03516 0.742188 25.2246
1.03516 0.820313 25.2832
1.07422 0.820313 25.2246
1.07422 0.820313 25.2832
-1.34766 -5.27344 20.127
-1.30859 -5.27344 20.0684
-1.30859 -5.27344 20.127
-1.26953 -5.27344 20.0684
-1.26953 -5.27344 20.127
0.957031 0.429688 25.1074
0.957031 0.507813 25.166
0.996094 0.507813 25.1074
0.996094 0.585938 25.166
0.957031 0.585938 25.2246
1.03516 0.585938 25.1074
1.11328 0.976563 25.2832
1.15234 0.976563 25.2246
1.15234 1.05469 25.2832
1.15234 1.13281 25.2832
1.19141 0.976563 25.1074
1.19141 0.976563 25.166
1.19141 1.05469 25.1074
1.19141 1.05469 25.166
1.19141 1.05469 25.2246
1.19141 1.13281 25.166
1.23047 1.13281 25.1074
1.23047 1.21094 25.1074
1.23047 1.21094 25.166
1.19141 1.13281 25.2246
1.19141 1.21094 25.2246
1.19141 1.21094 25.2832
0.644531 2.30469 26.5137
0.644531 2.30469 26.5723
0.683594 2.30469 26.5137
0.683594 2.38281 26.5723
0.644531 2.38281 26.6309
0.644531 2.46094 26.6309
0.683594 2.46094 26.6309
0.722656 2.30469 26.5137
0.722656 2.38281 26.5723
0.761719 2.38281 26.5137
0.761719 2.46094 26.5723
0.722656 2.46094 26.6309
-2.36328 -3.47656 21.8262
-0.605469 -6.52344 19.4824
-0.605469 -6.44531 19.4824
-0.566406 -6.52344 19.4824
-0.566406 -6.44531 19.4824
-0.605469 -6.36719 19.4824
-0.605469 -6.28906 19.4824
-0.566406 -6.36719 19.4824
-0.566406 -6.28906 19.4824
-0.527344 -6.52344 19.4824
-0.527344 -6.44531 19.4824
-0.488281 -6.52344 19.4824
-0.488281 -6.44531 19.4824
-0.527344 -6.36719 19.4824
-0.527344 -6.28906 19.4824
-0.488281 -6.36719 19.4824
-0.488281 -6.28906 19.4824
-0.761719 -6.52344 19.4824
-0.761719 -6.44531 19.4824
-0.722656 -6.52344 19.4824
-0.722656 -6.44531 19.4824
-0.761719 -6.36719 19.4824
-0.761719 -6.28906 19.4824
-0.722656 -6.36719 19.4824
-0.722656 -6.28906 19.4824
-0.683594 -6.52344 19.4824
-0.683594 -6.44531 19.4824
-0.644531 -6.52344 19.4824
-0.644531 -6.44531 19.4824
-0.683594 -6.36719 19.4824
-0.683594 -6.28906 19.4824
-0.644531 -6.36719 19.4824
-0.644531 -6.28906 19.4824
0.410156 -1.21094 24.3457
0.449219 -1.21094 24.3457
0.214844 -1.99219 21.3574
0.214844 -1.91406 21.3574
0.253906 -2.07031 21.3574
0.292969 -2.07031 21.3574
0.253906 -1.99219 21.3574
0.253906 -1.91406 21.3574
0.292969 -1.99219 21.416
0.292969 -1.91406 21.416
-1.54297 -2.14844 21.1816
-1.54297 -2.07031 21.1816
-1.50391 -2.14844 21.1816
-1.50391 -2.07031 21.1816
-1.54297 -1.99219 21.2402
-1.54297 -1.91406 21.2988
-1.50391 -1.99219 21.2402
-1.50391 -1.91406 21.2988
-1.46484 -2.14844 21.123
-1.46484 -2.07031 21.1816
-1.42578 -2.14844 21.123
-1.42578 -2.07031 21.1816
-1.42578 -1.99219 21.1816
-1.46484 -1.99219 21.2402
-1.46484 -1.91406 21.2402
-1.42578 -1.91406 21.2402
-0.605469 0.976563 24.6387
-0.605469 0.976563 24.6973
-0.605469 1.05469 24.6973
-0.566406 1.05469 24.6387
-0.605469 1.05469 24.7559
-0.566406 1.13281 24.6387
-0.566406 1.13281 24.6973
-0.566406 1.21094 24.6973
-0.605469 1.13281 24.7559
-0.605469 1.13281 24.8145
-0.566406 1.13281 24.8145
-0.566406 1.21094 24.7559
-0.527344 1.21094 24.6387
-0.527344 1.21094 24.8145
-0.449219 1.36719 24.6387
-0.449219 1.36719 24.8145
-0.449219 1.44531 24.6973
-0.410156 1.44531 24.6387
-0.410156 1.52344 24.6387
-0.410156 1.52344 24.6973
-0.449219 1.44531 24.7559
-0.410156 1.44531 24.7559
-0.410156 1.44531 24.8145
-0.410156 1.52344 24.8145
-0.371094 1.52344 24.6973
-0.371094 1.52344 24.7559
-1.23047 1.05469 24.1113
-1.23047 1.13281 24.1113
-1.23047 1.21094 24.1113
-1.19141 1.13281 24.1113
-1.19141 1.21094 24.1113
-1.11328 0.976563 24.1113
-1.11328 1.05469 24.1113
-1.15234 1.13281 24.1113
-1.15234 1.21094 24.1113
-1.11328 1.13281 24.1113
-1.11328 1.21094 24.1113
0.683594 4.17969 26.748
0.644531 4.25781 26.748
0.644531 4.33594 26.8066
0.683594 4.25781 26.8066
0.683594 4.33594 26.8066
0.722656 4.17969 26.748
0.761719 4.17969 26.748
0.722656 4.25781 26.8066
0.722656 4.33594 26.8066
0.761719 4.25781 26.8066
0.761719 4.33594 26.8066
-0.449219 1.28906 24.3457
-0.410156 1.28906 24.3457
-0.410156 1.36719 24.3457
-0.332031 1.28906 24.2285
-0.332031 1.36719 24.2285
-0.371094 1.28906 24.2871
-0.371094 1.36719 24.2871
-0.371094 1.36719 24.3457
-0.332031 1.36719 24.2871
-0.332031 1.44531 24.3457
-1.34766 -3.47656 22.998
-1.26953 -3.63281 22.998
-1.30859 -3.55469 22.998
-1.30859 -3.47656 22.998
-1.26953 -3.55469 22.998
-1.26953 -3.47656 23.0566
0.644531 0.0390625 24.9902
0.644531 0.117188 25.0488
0.683594 0.0390625 24.9902
0.683594 0.117188 25.0488
0.761719 0.0390625 24.9316
0.722656 0.0390625 24.9902
0.722656 0.117188 25.0488
0.761719 0.117188 24.9902
0.761719 0.117188 25.0488
-0.449219 1.36719 24.873
-0.449219 1.36719 24.9316
-0.449219 1.28906 24.9902
-0.449219 1.28906 25.0488
-0.449219 1.36719 24.9902
-0.449219 1.36719 25.0488
-0.449219 1.44531 24.873
-0.449219 1.44531 24.9316
-0.410156 1.52344 24.873
-0.410156 1.52344 24.9316
-0.449219 1.44531 24.9902
-0.410156 1.44531 25.0488
-0.410156 1.52344 24.9902
-0.410156 1.52344 25.0488
0.410156 3.08594 27.2168
0.449219 3.08594 27.2168
-0.371094 1.60156 24.6387
-0.332031 1.60156 24.6387
-0.332031 1.60156 24.6973
-0.332031 1.67969 24.6973
-0.371094 1.60156 24.7559
-0.371094 1.60156 24.8145
-0.332031 1.67969 24.7559
-0.332031 1.67969 24.8145
-2.48047 -2.38281 20.1855
-2.48047 -2.38281 20.2441
-2.44141 -2.46094 20.2441
-2.44141 -2.38281 20.1855
-2.48047 -2.38281 20.3027
-2.48047 -2.38281 20.3613
-2.44141 -2.46094 20.3027
-2.44141 -2.46094 20.3613
-2.40234 -2.46094 20.1855
-2.40234 -2.46094 20.2441
-2.36328 -2.46094 20.1855
-2.36328 -2.46094 20.2441
-2.40234 -2.46094 20.3027
-2.40234 -2.46094 20.3613
-2.36328 -2.46094 20.3027
-2.36328 -2.46094 20.3613
-3.57422 -1.75781 19.8926
-3.57422 -1.67969 19.8926
-3.57422 -1.60156 19.834
-3.53516 -1.67969 19.8926
-3.53516 -1.60156 19.834
-3.49609 -1.60156 19.8926
-3.45703 -1.60156 19.8926
-3.57422 -1.83594 19.9512
-3.57422 -1.83594 20.0098
-3.53516 -1.75781 19.9512
-3.53516 -1.75781 20.0098
-3.57422 -1.83594 20.0684
-3.53516 -1.83594 20.0684
-3.49609 -1.83594 20.0098
-3.49609 -1.75781 19.9512
-3.45703 -1.75781 20.0098
-3.49609 -1.83594 20.0684
-3.45703 -1.83594 20.0684
-3.49609 -1.67969 19.9512
-3.45703 -1.67969 19.9512
-3.10547 -1.52344 19.6582
-3.10547 -1.44531 19.6582
-3.06641 -1.52344 19.6582
-3.06641 -1.44531 19.5996
-3.10547 -1.36719 19.6582
-3.10547 -1.28906 19.6582
-3.06641 -1.36719 19.5996
-3.06641 -1.28906 19.5996
-3.02734 -1.44531 19.541
-2.98828 -1.52344 19.541
-2.98828 -1.44531 19.541
-3.02734 -1.52344 19.5996
-3.02734 -1.36719 19.541
-3.02734 -1.28906 19.541
-2.98828 -1.36719 19.541
-2.98828 -1.28906 19.541
-2.16797 4.33594 24.873
-2.16797 4.33594 24.9316
-2.12891 4.25781 24.873
-2.12891 4.33594 24.9316
-2.08984 4.17969 24.873
-2.05078 4.10156 24.873
-2.05078 4.17969 24.873
-2.08984 4.25781 24.873
-2.08984 4.33594 24.9316
-2.05078 4.25781 24.873
-2.05078 4.33594 24.9316
0.488281 -4.57031 23.7012
0.488281 -4.57031 23.7598
0.527344 -4.64844 23.7012
0.527344 -4.64844 23.7598
0.527344 -4.57031 23.8184
0.527344 -4.57031 23.877
0.488281 -4.49219 23.8184
0.488281 -4.49219 23.877
0.488281 -4.41406 23.877
0.527344 -4.49219 23.877
0.527344 -4.41406 23.8184
0.566406 -4.64844 23.7012
0.566406 -4.64844 23.7598
0.605469 -4.64844 23.7012
0.605469 -4.64844 23.7598
0.566406 -4.57031 23.8184
0.566406 -4.57031 23.877
0.605469 -4.64844 23.8184
0.605469 -4.57031 23.877
0.566406 -4.49219 23.877
0.566406 -4.41406 23.8184
0.605469 -4.41406 23.8184
0.605469 -4.41406 23.877
0.488281 -5.03906 22.998
0.488281 -5.03906 23.0566
0.527344 -5.03906 22.998
0.527344 -5.03906 23.0566
0.488281 -5.03906 23.1152
0.488281 -5.03906 23.1738
0.527344 -5.03906 23.1152
0.527344 -5.03906 23.1738
0.566406 -5.03906 22.998
0.566406 -5.03906 23.0566
0.605469 -5.03906 22.998
0.605469 -5.03906 23.0566
0.566406 -5.03906 23.1152
0.566406 -5.03906 23.1738
0.605469 -5.03906 23.1152
0.605469 -5.03906 23.1738
-3.10547 -1.44531 19.0723
-3.06641 -1.44531 19.0723
-3.10547 -1.52344 19.1309
-3.06641 -1.52344 19.1895
-3.06641 -1.44531 19.1309
-3.10547 -1.36719 19.0137
-3.10547 -1.28906 19.0137
-3.06641 -1.36719 19.0723
-3.06641 -1.28906 19.0137
-3.02734 -1.52344 19.1895
-3.02734 -1.44531 19.1309
-2.98828 -1.52344 19.1895
-2.98828 -1.44531 19.1309
-3.02734 -1.36719 19.0723
-3.02734 -1.28906 19.0137
-2.98828 -1.28906 19.0723
-2.98828 -1.36719 19.1309
-2.94922 -1.44531 19.248
-2.94922 -1.44531 19.3066
-2.94922 -1.52344 19.4238
-2.94922 -1.44531 19.3652
-2.94922 -1.44531 19.4238
-2.94922 -1.36719 19.248
-2.91016 -1.36719 19.3066
-2.91016 -1.28906 19.248
-2.91016 -1.28906 19.3066
-2.94922 -1.36719 19.4238
-2.94922 -1.28906 19.4238
-2.91016 -1.36719 19.3652
-2.91016 -1.28906 19.3652
2.87109 -3.08594 24.873
2.91016 -3.08594 24.873
2.91016 -3.00781 24.873
2.94922 -3.08594 24.873
2.94922 -3.00781 24.873
-3.06641 -1.13281 19.541
-3.10547 -1.21094 19.6582
-3.10547 -1.13281 19.5996
-3.06641 -1.21094 19.5996
-3.06641 -1.05469 19.541
-3.06641 -0.976563 19.541
-3.10547 -1.05469 19.5996
-3.10547 -0.976563 19.5996
-3.02734 -1.21094 19.541
-3.02734 -1.13281 19.541
-2.98828 -1.21094 19.541
-2.98828 -1.13281 19.4824
-3.02734 -1.05469 19.541
-3.02734 -0.976563 19.541
-2.98828 -1.05469 19.541
-2.98828 -0.976563 19.4824
-2.94922 -1.52344 19.4824
-2.94922 -1.44531 19.4824
-2.94922 -1.36719 19.4824
-2.94922 -1.28906 19.4824
1.58203 -4.88281 23.9941
1.58203 -4.88281 24.0527
1.58203 -4.88281 24.1113
1.58203 -4.80469 23.9355
1.62109 -4.80469 23.9355
1.62109 -4.80469 23.9941
1.62109 -4.80469 24.0527
1.62109 -4.80469 24.1113
1.66016 -4.80469 23.9355
1.66016 -4.80469 23.9941
1.69922 -4.80469 23.9355
1.69922 -4.80469 23.9941
1.66016 -4.80469 24.0527
1.66016 -4.80469 24.1113
1.69922 -4.80469 24.0527
1.69922 -4.80469 24.1113
-2.32422 -2.46094 19.8926
-2.32422 -2.38281 19.8926
-2.28516 -2.38281 19.8926
-2.40234 -2.53906 19.9512
-2.36328 -2.53906 19.9512
-2.32422 -2.46094 20.2441
-2.32422 -2.38281 20.1855
-2.28516 -2.46094 20.1855
-2.28516 -2.46094 20.2441
-2.32422 -2.46094 20.3027
-2.32422 -2.46094 20.3613
-2.28516 -2.46094 20.3027
-2.24609 -2.46094 20.1855
-2.24609 -2.46094 20.2441
-2.20703 -2.46094 20.1855
-2.20703 -2.46094 20.2441
-2.24609 -2.46094 20.3027
-2.24609 -2.46094 20.3613
-2.20703 -2.46094 20.3613
-2.28516 -2.53906 20.3613
-2.20703 -2.53906 20.3027
-0.761719 -3.32031 23.4668
-0.722656 -3.39844 23.4668
-0.722656 -3.32031 23.4668
-0.761719 -3.24219 23.4668
-0.761719 -3.16406 23.4668
-0.722656 -3.24219 23.4668
-0.722656 -3.16406 23.5254
-0.683594 -3.39844 23.4668
-0.683594 -3.32031 23.4668
-0.644531 -3.39844 23.4668
-0.644531 -3.32031 23.5254
-0.683594 -3.24219 23.5254
-0.683594 -3.16406 23.5254
-0.644531 -3.24219 23.5254
-0.644531 -3.16406 23.5254
-2.16797 -2.46094 20.1855
-2.12891 -2.46094 20.2441
-2.16797 -2.46094 20.3027
-2.16797 -2.46094 20.3613
-2.12891 -2.46094 20.3027
-2.12891 -2.46094 20.3613
-2.05078 -2.46094 20.2441
-2.08984 -2.46094 20.3027
-2.08984 -2.46094 20.3613
-2.05078 -2.46094 20.3027
-2.05078 -2.46094 20.3613
-1.38672 -3.39844 22.998
-1.38672 -3.32031 22.998
-1.34766 -3.39844 22.998
-1.34766 -3.32031 23.0566
-1.38672 -3.24219 23.0566
-1.38672 -3.16406 23.0566
